# .PCD v.7 - Point Cloud Data file format
VERSION .7
FIELDS x y z
SIZE 4 4 4
TYPE F F F
COUNT 1 1 1
WIDTH 1727
HEIGHT 1
POINTS 1727
DATA ascii
1.134086 1.353185 0.392439
1.133833 1.339453 0.395906
1.143267 1.337388 0.389878
1.147818 1.329390 0.388628
1.151272 1.320107 0.388444
1.149671 1.305091 0.393139
1.150769 1.293338 0.395199
1.165201 1.296808 0.384385
1.172887 1.292567 0.380071
1.186837 1.295144 0.369800
1.200880 1.297621 0.359490
1.208083 1.292588 0.355716
1.214786 1.286862 0.352456
1.225472 1.285285 0.345420
1.249975 1.298328 0.325337
1.253226 1.288749 0.325388
1.266911 1.290034 0.315626
1.287054 1.297738 0.299842
1.289051 1.286774 0.301084
1.294612 1.279366 0.299004
1.338908 1.297229 0.264065
1.341518 1.286659 0.264782
1.351357 1.283098 0.258828
1.387612 1.304707 0.228573
1.387182 1.291076 0.232135
1.396463 1.286624 0.226788
1.404472 1.280888 0.222605
1.435777 1.296465 0.197211
1.444493 1.291122 0.192464
1.455095 1.287356 0.186031
1.460147 1.278558 0.184635
1.498150 1.285324 0.156710
1.513838 1.285499 0.145812
1.516958 1.274825 0.146213
1.512542 1.257642 0.153367
1.517454 1.248646 0.152122
1.526751 1.243199 0.146984
1.515725 1.220992 0.159926
1.523731 1.214559 0.155921
1.529092 1.205958 0.154267
1.527405 1.191739 0.158832
1.522367 1.175058 0.166309
1.526350 1.165473 0.165837
1.520528 1.148400 0.173945
1.525713 1.139900 0.172387
1.516356 1.120566 0.183493
1.524046 1.114036 0.179736
1.517258 1.096773 0.188558
1.523569 1.089258 0.185982
1.518503 1.073573 0.193234
1.516707 1.060351 0.197629
1.525530 1.054707 0.192864
1.508879 1.031351 0.209990
1.511650 1.021576 0.210405
1.525070 1.019081 0.201706
1.521625 1.005175 0.207415
1.513330 0.988122 0.217221
1.514549 0.977523 0.218917
1.516294 0.967367 0.220137
1.512576 0.953692 0.225977
1.517007 0.945327 0.224910
1.520051 0.936087 0.225012
1.517461 0.923408 0.229835
1.514863 0.910788 0.234647
1.520518 0.903279 0.232528
1.519917 0.891988 0.235642
1.525492 0.884450 0.233585
1.505841 0.862142 0.252515
1.505752 0.851434 0.255135
1.514723 0.845979 0.250229
1.506017 0.830512 0.259951
1.504277 0.819110 0.263881
1.497560 0.805020 0.271895
1.500698 0.796436 0.271774
1.506017 0.788999 0.269871
1.498335 0.774718 0.278600
1.500688 0.765783 0.279105
1.508027 0.759445 0.275541
1.500860 0.745737 0.283779
1.501643 0.736107 0.285537
1.502342 0.726497 0.287350
1.509605 0.720100 0.283853
1.503652 0.707338 0.291023
1.504966 0.698121 0.292314
1.514345 0.692693 0.287120
1.510488 0.681089 0.292561
1.508736 0.670563 0.296290
1.507684 0.660410 0.299445
1.503644 0.648986 0.304971
1.504699 0.639881 0.306415
1.501977 0.629204 0.310851
1.497836 0.617950 0.316406
1.506906 0.612345 0.311470
1.510867 0.604521 0.310598
1.510963 0.595165 0.312766
1.502065 0.582257 0.322008
1.504359 0.573879 0.322423
1.506654 0.565501 0.322838
1.510368 0.557679 0.322135
1.495183 0.542810 0.336197
1.507199 0.538107 0.329005
1.504732 0.528114 0.333102
1.504559 0.518969 0.335406
1.499703 0.508259 0.341328
1.505548 0.501266 0.338952
1.443618 0.462919 0.390972
1.441559 0.453720 0.394596
1.444109 0.446026 0.394670
1.448886 0.439042 0.393034
1.451357 0.431309 0.393170
1.450006 0.422422 0.396230
1.447771 0.413333 0.399948
1.454784 0.406968 0.396616
1.443922 0.395499 0.406872
1.456367 0.390623 0.399425
1.459475 0.383105 0.399073
1.462502 0.375556 0.398780
1.464011 0.367602 0.399638
1.452949 0.356463 0.409953
1.462138 0.350509 0.405016
1.478472 0.346190 0.394746
1.490810 0.340778 0.387501
1.503963 0.335439 0.379675
1.517933 0.330144 0.371272
1.527979 0.323854 0.365821
1.528468 0.315451 0.367493
1.529760 0.307220 0.368566
1.538133 0.300436 0.364393
1.538622 0.292012 0.366066
1.541365 0.284058 0.366069
1.552091 0.277564 0.360197
1.557987 0.270123 0.357897
1.557510 0.261508 0.360285
1.557839 0.253046 0.362078
1.571661 0.246826 0.353999
1.581536 0.239841 0.348834
1.580174 0.231053 0.351876
1.585122 0.223242 0.350320
1.601333 0.216983 0.340597
1.611158 0.209690 0.335540
1.604855 0.200205 0.342170
1.605681 0.191709 0.343628
1.621853 0.185053 0.334026
1.622687 0.176487 0.335496
1.621895 0.167745 0.338133
1.633950 0.160375 0.331553
1.643657 0.152645 0.326681
1.650035 0.144533 0.324207
1.649901 0.135785 0.326389
1.657917 0.127730 0.322766
1.670753 0.119976 0.315737
1.668911 0.111053 0.319144
1.671067 0.102427 0.319713
1.683028 0.094390 0.313355
1.689279 0.085927 0.311053
1.681631 0.076704 0.318549
1.695987 0.068574 0.310557
1.703725 0.060043 0.307241
1.695986 0.050901 0.314781
1.651267 0.040764 0.348150
1.659727 0.032400 0.344294
1.660810 0.023817 0.345596
1.647933 0.015041 0.356604
1.651391 0.006551 0.356240
1.663071 -0.001937 0.350185
1.665717 -0.010520 0.350406
1.664167 -0.019091 0.353527
1.660143 -0.027606 0.358345
1.660975 -0.036156 0.359812
1.666754 -0.044817 0.357884
1.665939 -0.053344 0.360485
1.665866 -0.061881 0.362576
1.678176 -0.070882 0.356206
1.680586 -0.079570 0.356616
1.682088 -0.088236 0.357646
1.686818 -0.097084 0.356488
1.685014 -0.105586 0.359769
1.692232 -0.114645 0.356936
1.692747 -0.123308 0.358650
1.688290 -0.131603 0.363717
1.696266 -0.140822 0.360402
1.687657 -0.148726 0.368252
1.702115 -0.158614 0.360602
1.702550 -0.167306 0.362375
1.698748 -0.175576 0.366983
1.711578 -0.185540 0.360496
1.716010 -0.194722 0.359615
1.719622 -0.203847 0.359304
1.712402 -0.211702 0.366175
1.718428 -0.221145 0.364262
1.723541 -0.230531 0.362960
1.715395 -0.238170 0.370423
1.711334 -0.246299 0.375183
1.733827 -0.258250 0.362470
1.734696 -0.267174 0.363994
1.728965 -0.275061 0.369853
1.734770 -0.284761 0.368149
1.728024 -0.292441 0.374648
1.735430 -0.302472 0.371922
1.732031 -0.310656 0.376234
1.735169 -0.320016 0.376296
1.737475 -0.329250 0.376912
1.741458 -0.338816 0.376440
1.750319 -0.349406 0.372835
1.851671 -0.388194 0.311974
1.856231 -0.398590 0.311291
1.859202 -0.408656 0.311646
1.858244 -0.427369 0.316781
1.860207 -0.437297 0.317788
1.868761 -0.448810 0.314628
1.857477 -0.455578 0.324050
1.856831 -0.464899 0.326727
1.856184 -0.474219 0.329404
1.861285 -0.485018 0.328451
1.859712 -0.494132 0.331720
1.856526 -0.502775 0.335993
1.849945 -0.510477 0.342378
1.860659 -0.522962 0.337956
1.859843 -0.532261 0.340739
1.852328 -0.539636 0.347706
1.844802 -0.546942 0.354654
1.847974 -0.557387 0.354953
1.856847 -0.569609 0.351735
1.843449 -0.575037 0.362304
1.839142 -0.583174 0.367236
1.848708 -0.595760 0.363617
1.846701 -0.604682 0.367136
1.851340 -0.615766 0.366573
1.846781 -0.623861 0.371668
1.853732 -0.635829 0.369710
1.854893 -0.645880 0.371316
1.851948 -0.654496 0.375408
1.850627 -0.663681 0.378516
1.844349 -0.671066 0.384633
1.838833 -0.678686 0.390272
1.833311 -0.686256 0.395903
1.834214 -0.696246 0.397663
1.837604 -0.707181 0.397931
1.829501 -0.713725 0.405092
1.831184 -0.724029 0.406402
1.834411 -0.735003 0.406785
1.988396 -0.817668 0.319980
1.993792 -0.830490 0.319300
1.998344 -0.843036 0.319154
1.987478 -0.849061 0.328118
2.003240 -0.866513 0.321376
2.001947 -0.876704 0.324709
2.002291 -0.887605 0.327077
1.996156 -0.895618 0.333232
1.995556 -0.906133 0.336163
1.994174 -0.916274 0.339544
2.006376 -0.932752 0.335028
2.001632 -0.941443 0.340389
1.994458 -0.948940 0.347146
1.998542 -0.961761 0.347381
2.002468 -0.974631 0.347740
2.001628 -0.985194 0.350852
2.003130 -0.996930 0.352617
1.999771 -1.006299 0.357175
2.001115 -1.018073 0.359063
2.002453 -1.029828 0.360943
2.002229 -1.040774 0.363720
2.003492 -1.052627 0.365667
2.000668 -1.062358 0.369947
2.006569 -1.076736 0.369308
2.009241 -1.089497 0.370490
1.996904 -1.093978 0.380124
2.007363 -1.111079 0.376962
2.003670 -1.120405 0.381739
2.006894 -1.133568 0.382669
2.026503 -1.156215 0.374510
2.032818 -1.171493 0.373776
2.027223 -1.179908 0.379662
2.010828 -1.181869 0.391489
2.006009 -1.190689 0.396918
2.119827 -1.295291 0.343155
2.105484 -1.298861 0.353921
2.788254 -1.836904 0.010001
2.794440 -1.857853 0.010722
2.796743 -1.876283 0.013538
2.812624 -1.904077 0.009183
2.820022 -1.926329 0.009385
2.832668 -1.952305 0.006838
2.836020 -1.972137 0.009251
2.846135 -1.996700 0.008130
2.859123 -2.023575 0.005562
2.864480 -2.045214 0.007025
2.862999 -2.062122 0.012088
2.853226 -2.072992 0.021451
2.827111 -2.071791 0.039234
2.798027 -2.068178 0.058501
2.788211 -2.078650 0.067798
2.749587 -2.067298 0.091827
2.737590 -2.075862 0.102170
2.706416 -2.069645 0.122256
2.683444 -2.069364 0.138089
2.664047 -2.071799 0.152084
2.641837 -2.071724 0.167439
2.618887 -2.070846 0.183120
2.600315 -2.073287 0.196551
2.573807 -2.069197 0.213912
2.550236 -2.067120 0.229739
2.529527 -2.067255 0.244101
2.503915 -2.063072 0.260823
2.489025 -2.067632 0.272216
2.468426 -2.067271 0.286379
2.442194 -2.061889 0.303247
2.426613 -2.065348 0.314861
2.411103 -2.068709 0.326400
2.390683 -2.067653 0.340287
2.368792 -2.065191 0.354847
2.347606 -2.063233 0.369025
2.329382 -2.063487 0.381707
2.308323 -2.061131 0.395713
2.280960 -2.052854 0.412673
2.269050 -2.058434 0.422233
2.260679 -2.067026 0.430084
2.229314 -2.054338 0.448772
2.220837 -2.062731 0.456643
2.205491 -2.064600 0.467700
2.172287 -2.049410 0.487045
2.156344 -2.050179 0.498283
2.149277 -2.059479 0.505389
2.131934 -2.058845 0.517226
2.105842 -2.049383 0.533024
2.092598 -2.052364 0.542912
2.078123 -2.053942 0.553293
2.062912 -2.054718 0.564008
2.043718 -2.051282 0.576479
2.029935 -2.053164 0.586458
2.019471 -2.058356 0.594938
1.999668 -2.053821 0.607574
1.985202 -2.054702 0.617784
1.966828 -2.051273 0.629684
1.959086 -2.058875 0.636851
1.942070 -2.056551 0.648088
1.917227 -2.045806 0.662690
1.910679 -2.054513 0.669310
1.900293 -2.058909 0.677544
1.884693 -2.057592 0.688026
1.869074 -2.056076 0.698479
1.852878 -2.053758 0.709144
1.841149 -2.056353 0.717879
1.824433 -2.053136 0.728663
1.818484 -2.062046 0.734919
1.795381 -2.051314 0.748345
1.779364 -2.048401 0.758735
1.767744 -2.050499 0.767272
1.758002 -2.054802 0.775031
1.732623 -2.040469 0.789171
1.732929 -2.056395 0.792767
1.718818 -2.055189 0.802238
1.696179 -2.043366 0.815093
1.695650 -2.058390 0.819053
1.670689 -2.043364 0.832738
1.656694 -2.041761 0.842020
1.656729 -2.057387 0.845748
1.633115 -2.043466 0.858754
1.624099 -2.047575 0.865977
1.609658 -2.044774 0.875307
1.595205 -2.041873 0.884619
1.587320 -2.047385 0.891382
1.569968 -2.040380 0.901733
1.563301 -2.047295 0.907987
1.551938 -2.047902 0.916001
1.539987 -2.047708 0.924211
1.534957 -2.056725 0.929864
1.517791 -2.049325 0.939954
1.507051 -2.050334 0.947642
1.491103 -2.044237 0.957220
1.476379 -2.039643 0.966299
1.469086 -2.045258 0.972688
1.462281 -2.051574 0.978913
1.448770 -2.048283 0.987472
1.431940 -2.039989 0.997158
1.427351 -2.049407 1.002575
1.418949 -2.053123 1.009275
1.408801 -2.054337 1.016592
1.373290 -2.033754 1.036237
1.372497 -2.048577 1.040340
1.360821 -2.047091 1.048056
1.343732 -2.037203 1.057528
1.334278 -2.038821 1.064444
1.335974 -2.057744 1.067794
1.317940 -2.045957 1.077462
1.305300 -2.042374 1.085345
1.298493 -2.047894 1.091381
1.286920 -2.045812 1.098888
1.266080 -2.028529 1.109189
1.258163 -2.032149 1.115535
1.252912 -2.039970 1.121033
1.248079 -2.048591 1.126441
1.235129 -2.043612 1.134212
1.223678 -2.041133 1.141539
1.220338 -2.052154 1.146492
1.209960 -2.051276 1.153452
1.193538 -2.040000 1.162118
1.185661 -2.043222 1.168341
1.173410 -2.038647 1.175721
1.161152 -2.033972 1.183090
1.158125 -2.045592 1.187974
1.143919 -2.037319 1.195830
1.133656 -2.035944 1.202600
1.123970 -2.035371 1.209159
1.117058 -2.039894 1.215034
1.109132 -2.042718 1.221184
1.094710 -2.033149 1.228889
1.083641 -2.029678 1.235704
1.076711 -2.034003 1.241551
1.067024 -2.033031 1.248015
1.062362 -2.041752 1.253319
1.051331 -2.037982 1.260063
1.042123 -2.037811 1.266384
1.035596 -2.042835 1.272101
1.022853 -2.035270 1.279125
1.012366 -2.032202 1.285642
1.011512 -2.048716 1.290185
1.004919 -2.053641 1.295910
0.987542 -2.035987 1.303725
0.978833 -2.036217 1.309806
0.973111 -2.042740 1.315330
0.960189 -2.033880 1.322153
0.949007 -2.028517 1.328608
0.937873 -2.023155 1.335029
0.935014 -2.035871 1.340044
0.928803 -2.041196 1.345622
0.914871 -2.029243 1.352412
0.907861 -2.032771 1.358100
0.902430 -2.039894 1.363558
0.890623 -2.032237 1.369914
0.881625 -2.031071 1.375844
0.876148 -2.037994 1.381304
0.865992 -2.033933 1.387358
0.859319 -2.038061 1.392959
0.854524 -2.046881 1.398371
0.841386 -2.035233 1.404676
0.833939 -2.037363 1.410352
0.825377 -2.036698 1.416124
0.818287 -2.039728 1.421745
0.807908 -2.034271 1.427637
0.801172 -2.038200 1.433216
0.791930 -2.035439 1.438970
0.783050 -2.033578 1.444677
0.779458 -2.045791 1.450069
0.773004 -2.050418 1.455640
0.758953 -2.034383 1.461531
0.749788 -2.031425 1.467165
0.744700 -2.039645 1.472656
0.733208 -2.030000 1.478303
0.725106 -2.029737 1.483850
0.718310 -2.033167 1.489373
0.712470 -2.039391 1.494898
0.705628 -2.042821 1.500441
0.698135 -2.044254 1.505973
0.687170 -2.035211 1.511402
0.683432 -2.047920 1.517029
0.673145 -2.040673 1.522422
0.668693 -2.051486 1.528085
0.662664 -2.057510 1.533687
0.661050 -2.077801 1.539649
0.657541 -2.092303 1.545553
0.645206 -2.078173 1.550710
0.634987 -2.070628 1.555987
0.629369 -2.078446 1.561727
0.600791 -2.034330 1.570972
0.589755 -2.022698 1.575835
0.581767 -2.021640 1.581099
0.573530 -2.019485 1.586290
0.550350 -1.990142 1.595317
0.541988 -1.986891 1.600335
0.531384 -1.974964 1.604817
0.507964 -1.941139 1.612958
0.499347 -1.935797 1.617637
0.489096 -1.923673 1.621819
0.479881 -1.915240 1.626201
0.471183 -1.908802 1.630664
0.461854 -1.899373 1.634870
0.453950 -1.895728 1.639473
0.444286 -1.884206 1.643419
0.436451 -1.880462 1.647946
0.428863 -1.877715 1.652522
0.417488 -1.857322 1.655521
0.408133 -1.845604 1.659209
0.399880 -1.838771 1.663292
0.391478 -1.830942 1.667220
0.382341 -1.819126 1.670730
0.371928 -1.800433 1.673467
0.365459 -1.801278 1.678134
0.357307 -1.793251 1.681859
0.350310 -1.791006 1.686170
0.343862 -1.791652 1.690794
0.333351 -1.769873 1.692849
0.326287 -1.766533 1.696947
0.318565 -1.759306 1.700563
0.309569 -1.744207 1.703171
0.303275 -1.744655 1.707646
0.295866 -1.738327 1.711249
0.287104 -1.723030 1.713665
0.279061 -1.711720 1.716522
0.270950 -1.699315 1.719180
0.257660 -1.693040 1.726887
0.251521 -1.693290 1.731187
0.244186 -1.684772 1.734220
0.237034 -1.677052 1.737340
0.230059 -1.670329 1.740558
0.224489 -1.674466 1.745391
0.215898 -1.653895 1.746430
0.209305 -1.649066 1.749832
0.203085 -1.647126 1.753682
0.195570 -1.633432 1.755597
0.189099 -1.628504 1.758900
0.183976 -1.636327 1.764307
0.177132 -1.627415 1.766915
0.170724 -1.622388 1.770146
0.158359 -1.616120 1.777220
0.151452 -1.604122 1.779133
0.144953 -1.596109 1.781705
0.137818 -1.579134 1.782590
0.131966 -1.577893 1.786335
0.126603 -1.583424 1.791376
0.119955 -1.570334 1.792849
0.113889 -1.565011 1.795785
0.107974 -1.561680 1.799082
0.094988 -1.531422 1.800829
0.089407 -1.531875 1.804807
0.083728 -1.530438 1.808378
0.077861 -1.524022 1.810904
0.071822 -1.511732 1.812155
0.066512 -1.518956 1.817544
0.060625 -1.508559 1.819140
0.054910 -1.502045 1.821533
0.049306 -1.498417 1.824557
0.032593 -1.485447 1.833029
0.027113 -1.485702 1.836870
0.021570 -1.472223 1.837489
0.016115 -1.462625 1.838963
0.010714 -1.458800 1.841803
0.005364 -1.450199 1.843437
0.000123 -1.437618 1.844063
-0.005197 -1.435685 1.847286
-0.010451 -1.430866 1.849766
-0.015766 -1.429929 1.853218
-0.020720 -1.415359 1.853167
-0.025984 -1.414322 1.856568
-0.051565 -1.394315 1.869497
-0.056617 -1.390294 1.872015
-0.061481 -1.383289 1.873717
-0.065549 -1.363849 1.871874
-0.071256 -1.372164 1.877824
-0.075929 -1.364265 1.879161
-0.080347 -1.353382 1.879623
-0.084766 -1.343394 1.880304
-0.094347 -1.335058 1.884932
-0.099596 -1.336610 1.888926
-0.103137 -1.318965 1.887176
-0.107997 -1.316638 1.889970
-0.112473 -1.310432 1.891592
-0.118952 -1.324215 1.899366
-0.123626 -1.319899 1.901565
-0.128485 -1.317472 1.904343
-0.132575 -1.308283 1.904997
-0.136497 -1.298300 1.905307
-0.141964 -1.301442 1.909847
-0.146279 -1.295138 1.911330
-0.150055 -1.285056 1.911534
-0.155542 -1.288098 1.916062
-0.158070 -1.269566 1.913376
-0.163931 -1.275392 1.918832
-0.168065 -1.268989 1.920174
-0.180840 -1.253562 1.925312
-0.186496 -1.257399 1.930148
-0.191106 -1.254675 1.932684
-0.196502 -1.256623 1.936876
-0.202895 -1.235274 1.936203
-0.207758 -1.234341 1.939340
-0.212112 -1.230524 1.941463
-0.218377 -1.236944 1.947326
-0.222184 -1.230445 1.948400
-0.226146 -1.224740 1.949786
-0.233609 -1.236525 1.957769
-0.240039 -1.242844 1.963708
-0.244782 -1.240716 1.966499
-0.248923 -1.235906 1.968215
-0.255448 -1.242026 1.974191
-0.265505 -1.263543 1.986293
-0.272418 -1.270456 1.992719
-0.280030 -1.279950 2.000271
-0.283004 -1.269576 1.999836
-0.294412 -1.294367 2.013659
-0.299380 -1.291939 2.016526
-0.306143 -1.296763 2.022354
-0.315918 -1.313207 2.033056
-0.322825 -1.317930 2.038958
-0.328834 -1.318977 2.043360
-0.355355 -1.352109 2.069645
-0.359834 -1.346699 2.071447
-0.379188 -1.372224 2.090929
-0.386830 -1.377240 2.097424
-0.392680 -1.376099 2.101207
-0.415208 -1.408864 2.124613
-0.420945 -1.406629 2.128057
-0.430274 -1.415812 2.136690
-0.437448 -1.417845 2.142160
-0.446079 -1.424246 2.149649
-0.459364 -1.444445 2.163664
-0.465558 -1.442803 2.167577
-0.524899 -1.512998 2.225409
-0.533599 -1.517010 2.232385
-0.544556 -1.526876 2.242329
-0.551164 -1.524734 2.246396
-0.572213 -1.560696 2.269546
-0.578971 -1.558353 2.273675
-0.583453 -1.550157 2.274811
-0.604408 -1.583930 2.297389
-0.614946 -1.590714 2.306291
-0.620594 -1.584798 2.308787
-0.726993 -1.697915 2.409443
-0.738056 -1.702804 2.418285
-0.743699 -1.695494 2.420424
-0.602073 1.028568 1.694306
-0.597553 1.029528 1.690969
-0.588047 1.021985 1.686033
-0.584062 1.023746 1.682898
-0.580067 1.025407 1.679762
-0.576555 1.027968 1.676779
-0.568643 1.022828 1.672432
-0.557379 1.011488 1.667089
-0.556799 1.019150 1.665034
-0.532397 1.009598 1.650224
-0.526119 1.006661 1.646516
-0.522191 1.008024 1.643495
-0.515021 1.003288 1.639566
-0.513396 1.009050 1.637197
-0.512641 1.016512 1.635047
-0.509129 1.018774 1.632138
-0.502081 1.023100 1.626319
-0.499427 1.027062 1.623630
-0.489680 1.025890 1.617131
-0.485683 1.027153 1.614106
-0.479540 1.023818 1.610575
-0.484538 1.043772 1.609699
-0.477511 1.038638 1.605954
-0.467768 1.037267 1.599521
-0.464158 1.039230 1.596598
-0.471662 1.065576 1.596059
-0.470400 1.073034 1.593586
-0.468277 1.078593 1.590902
0.062942 3.442311 0.711013
0.075538 3.429467 0.705080
0.087597 3.395219 0.704166
0.100682 3.411445 0.691588
0.126498 3.420402 0.671791
0.138808 3.406365 0.666319
0.151887 3.413631 0.655706
0.165077 3.421691 0.644824
0.190692 3.418303 0.627836
0.204195 3.429150 0.616164
0.217064 3.427256 0.607664
0.242673 3.421378 0.591220
0.256614 3.434711 0.578679
0.269473 3.431622 0.570459
0.282403 3.429429 0.561997
0.294858 3.421365 0.555125
0.307358 3.414197 0.548028
0.319647 3.405039 0.541507
0.332873 3.406429 0.532064
0.346129 3.407718 0.522614
0.358644 3.401247 0.515355
0.369830 3.382339 0.511719
0.382967 3.382535 0.502600
0.396763 3.388301 0.491793
0.409405 3.383521 0.484084
0.421580 3.374862 0.477534
0.434306 3.370978 0.469586
0.447626 3.371670 0.460216
0.458593 3.354357 0.456387
0.472804 3.361514 0.444987
0.484844 3.352657 0.438596
0.497511 3.348375 0.430760
0.511845 3.355331 0.419328
0.525677 3.358508 0.409074
0.570270 3.469776 0.354112
0.581760 3.454650 0.349435
0.591683 3.431073 0.347678
0.597693 3.385024 0.353505
0.614108 3.400726 0.338751
0.625669 3.388288 0.333445
0.637704 3.378635 0.327212
0.687146 3.348672 0.299504
0.702767 3.357211 0.286841
0.713799 3.343584 0.282189
0.725594 3.269111 0.290171
0.739480 3.270097 0.280351
0.753620 3.271877 0.270187
0.765531 3.263519 0.263763
0.778402 3.259633 0.255690
0.792246 3.259325 0.246175
0.806895 3.262595 0.235325
0.818507 3.253144 0.229357
0.831247 3.248065 0.221637
0.843912 3.242986 0.213982
0.854493 3.229660 0.209553
0.869744 3.234319 0.197978
0.879529 3.218211 0.194712
0.898027 3.234494 0.178392
0.909760 3.225441 0.172245
0.925213 3.229700 0.160613
0.940677 3.233959 0.148998
0.954211 3.230965 0.140293
0.963775 3.214460 0.137239
0.974884 3.203420 0.131968
0.995578 3.224066 0.113152
1.011579 3.228720 0.101079
1.024826 3.224433 0.092851
1.040114 3.226205 0.081886
1.059408 3.240192 0.065510
1.068844 3.223390 0.062626
1.079267 3.209965 0.058322
1.131095 3.274576 0.008469
1.148908 3.281704 -0.005406
1.156499 3.259341 -0.005800
1.163679 3.236084 -0.005725
1.171026 3.213622 -0.005946
1.176975 3.187787 -0.004459
1.185874 3.170590 -0.006885
1.188699 3.137112 -0.001573
1.199982 3.126668 -0.007127
1.206005 3.102623 -0.006079
1.208245 3.069250 -0.000385
1.217554 3.054539 -0.003649
1.225797 3.037348 -0.005617
1.227856 3.004971 -0.000018
1.236513 2.989470 -0.002635
1.248636 2.982304 -0.009469
1.241103 2.928196 0.007450
1.252567 2.920240 0.001254
1.263372 2.910496 -0.004118
1.268725 2.888350 -0.003005
1.271339 2.860349 0.001241
1.284061 2.855569 -0.006510
1.280622 2.814573 0.004766
1.289450 2.801459 0.001493
1.294129 2.779418 0.003037
1.302044 2.764718 0.000745
1.317603 2.766288 -0.010354
1.312313 2.723912 0.002480
1.318073 2.705147 0.002564
1.328406 2.696105 -0.002619
1.338664 2.686963 -0.007735
1.339015 2.657786 -0.001649
1.341944 2.634264 0.001422
1.349621 2.620363 -0.000870
1.352627 2.597736 0.001953
1.352299 2.568763 0.008460
1.364650 2.564385 0.000872
1.373172 2.552768 -0.002507
1.371997 2.523204 0.004715
1.374080 2.499888 0.008321
1.384861 2.493032 0.002355
1.389703 2.475170 0.002861
1.397478 2.462862 0.000167
1.403417 2.447381 -0.000579
1.408349 2.430316 -0.000303
1.409252 2.406511 0.004238
1.418962 2.397871 -0.000619
1.416513 2.368816 0.007393
1.425134 2.358691 0.003614
1.425951 2.335783 0.008021
1.429454 2.317335 0.009586
1.447501 2.322968 -0.004110
1.448573 2.300755 -0.000045
1.455528 2.288353 -0.002165
1.453484 2.261884 0.004999
1.457915 2.245718 0.005419
1.466562 2.236290 0.001495
1.469821 2.218740 0.003048
1.472143 2.199703 0.005549
1.475738 2.182947 0.006702
1.485578 2.175601 0.001490
1.480221 2.145871 0.011634
1.490408 2.139219 0.006039
1.503553 2.136826 -0.002532
1.501318 2.112249 0.004339
1.504916 2.096289 0.005310
1.513508 2.087360 0.001301
1.510421 2.062292 0.008877
1.517324 2.051285 0.006490
1.526690 2.043744 0.001650
1.534024 2.033330 -0.001175
1.533047 2.011930 0.004139
1.530374 1.988452 0.011067
1.540683 1.982197 0.005293
1.185307 1.503571 0.354889
1.198881 1.506153 0.344953
1.162105 1.430470 0.386797
1.159428 1.413066 0.392426
1.152836 1.391013 0.401758
1.160792 1.386968 0.397130
1.164413 1.377579 0.396661
1.165731 1.365620 0.398340
1.173618 1.361476 0.393787
1.175961 1.350803 0.394474
1.177116 1.338845 0.396267
1.177075 1.325603 0.399159
1.178741 1.314438 0.400453
1.186469 1.310195 0.396024
1.190788 1.302096 0.394793
1.191684 1.290240 0.396739
1.210286 1.297760 0.382242
1.214610 1.289561 0.381021
1.231529 1.294904 0.368157
1.239888 1.290955 0.363232
1.244744 1.283249 0.361542
1.263571 1.290171 0.347026
1.277268 1.291357 0.337283
1.289257 1.290665 0.329133
1.301257 1.289973 0.321000
1.319191 1.295009 0.307496
1.326486 1.289276 0.303688
1.333705 1.283544 0.299945
1.370675 1.293309 0.272251
1.376198 1.285499 0.270122
1.394457 1.289736 0.256570
1.396288 1.278471 0.257752
1.428855 1.295439 0.231529
1.430704 1.283974 0.232740
1.452969 1.291067 0.215809
1.468449 1.291742 0.204957
1.479017 1.287875 0.198478
1.490811 1.284994 0.190947
1.532801 1.294719 0.159788
1.540301 1.287690 0.156114
1.550399 1.282831 0.150195
1.555320 1.273532 0.148793
1.553155 1.258514 0.153553
1.554106 1.246160 0.155584
1.551847 1.231142 0.160385
1.549423 1.216326 0.165296
1.542399 1.197860 0.174144
1.546985 1.188763 0.172958
1.539778 1.170499 0.181891
1.541673 1.159432 0.182986
1.534207 1.141369 0.192070
1.541304 1.134243 0.188692
1.540343 1.121207 0.192184
1.535987 1.105907 0.198527
1.537538 1.094942 0.199830
1.529009 1.076788 0.209661
1.533777 1.068287 0.208205
1.537239 1.058800 0.207859
1.533834 1.044688 0.213279
1.531118 1.031068 0.218108
1.535719 1.022568 0.216762
1.528736 1.006393 0.225117
1.527764 0.994253 0.228409
1.533673 0.986738 0.225954
1.536715 0.977375 0.225879
1.530155 0.961834 0.233785
1.525515 0.947711 0.240057
1.522880 0.934967 0.244642
1.523650 0.924436 0.246392
1.526515 0.915213 0.246411
1.518807 0.899641 0.255118
1.527101 0.893811 0.250644
1.529099 0.884186 0.251348
1.500441 0.846246 0.279397
1.509351 0.840859 0.274404
1.508280 0.829805 0.277541
1.510797 0.820764 0.277758
1.507448 0.808603 0.282712
1.505499 0.797277 0.286516
1.511445 0.790211 0.283935
1.505808 0.777032 0.290689
1.501489 0.764699 0.296351
1.510169 0.759125 0.291555
1.510153 0.749068 0.293746
1.504329 0.736140 0.300578
1.505634 0.726879 0.301683
1.507644 0.717992 0.302220
1.508158 0.708409 0.303942
1.500569 0.695016 0.312094
1.502489 0.686199 0.312678
1.515433 0.682463 0.304533
1.505458 0.668223 0.314519
1.514624 0.662734 0.309370
1.498636 0.646033 0.324049
1.512223 0.642460 0.315426
1.505681 0.630145 0.322621
1.499130 0.617930 0.329801
1.510436 0.613260 0.322991
1.510518 0.603900 0.324965
1.502284 0.591220 0.333409
1.504492 0.582838 0.333700
1.506700 0.574447 0.333990
1.509621 0.566349 0.333727
1.503416 0.554798 0.340522
1.497203 0.543336 0.347304
1.507579 0.538087 0.341265
1.512640 0.530818 0.339340
1.503944 0.518669 0.347990
1.515131 0.513532 0.341364
1.512473 0.503586 0.345358
1.458514 0.467897 0.390423
1.454853 0.458108 0.395077
1.458129 0.450585 0.394441
1.450547 0.439672 0.402051
1.448305 0.430519 0.405586
1.459966 0.425598 0.398588
1.463080 0.418046 0.398071
1.460755 0.408913 0.401659
1.459945 0.400257 0.404095
1.470746 0.394875 0.397792
1.469053 0.385996 0.400886
1.471287 0.378192 0.401033
1.520389 0.373902 0.367996
1.517105 0.364479 0.372312
1.520805 0.356812 0.371412
1.518237 0.347642 0.375178
1.521856 0.339966 0.374338
1.525560 0.332270 0.373445
1.526767 0.324026 0.374397
1.534341 0.317146 0.370650
1.538694 0.309534 0.369289
1.543051 0.301893 0.367932
1.541841 0.293120 0.370669
1.557263 0.287572 0.361203
1.557590 0.279066 0.362820
1.561795 0.271296 0.361597
1.569239 0.264048 0.358019
1.579117 0.257140 0.352683
1.586492 0.249753 0.349183
1.585044 0.240903 0.352103
1.589995 0.233057 0.350378
1.599734 0.225891 0.345195
1.597393 0.216928 0.348759
1.607143 0.209642 0.343593
1.620068 0.202690 0.336159
1.621628 0.194194 0.336921
1.620832 0.185408 0.339377
1.623936 0.177109 0.339029
1.629566 0.169050 0.336881
1.641551 0.161627 0.330201
1.642223 0.152959 0.331614
1.649333 0.144907 0.328441
1.645114 0.135790 0.333336
1.661940 0.128478 0.323281
1.662454 0.119751 0.324819
1.670319 0.111544 0.321157
1.674022 0.103002 0.320447
1.672905 0.094129 0.323142
1.683073 0.085925 0.317888
1.689240 0.077414 0.315467
1.701062 0.069109 0.309088
1.706260 0.060430 0.307375
1.705806 0.051506 0.309624
1.645568 0.032280 0.355461
1.649020 0.023792 0.354914
1.650831 0.015255 0.355511
1.644343 0.006641 0.361868
1.664157 -0.001811 0.349993
1.661781 -0.010418 0.353502
1.656027 -0.018966 0.359336
1.656854 -0.027526 0.360620
1.664189 -0.036203 0.357427
1.669057 -0.044891 0.355942
1.665684 -0.053391 0.360119
1.673775 -0.062230 0.356438
1.679396 -0.071050 0.354461
1.688326 -0.080065 0.350238
1.679830 -0.088318 0.357905
1.684470 -0.097188 0.356619
1.670998 -0.105026 0.367636
1.678947 -0.114092 0.364103
1.681025 -0.122841 0.364562
1.685589 -0.131779 0.363343
1.688096 -0.149234 0.365391
1.699970 -0.158936 0.359278
1.696170 -0.167250 0.363714
1.703077 -0.176604 0.360965
1.697524 -0.184716 0.366557
1.701865 -0.193860 0.365544
1.704541 -0.202863 0.365640
1.709720 -0.212174 0.364083
1.714817 -0.221544 0.362584
1.724832 -0.231600 0.357831
1.714947 -0.239049 0.366294
1.717466 -0.248150 0.366514
1.720746 -0.257396 0.366255
1.724027 -0.266672 0.365997
1.734610 -0.285973 0.362864
1.730376 -0.294115 0.367550
1.730157 -0.302915 0.369611
1.734957 -0.312591 0.368389
1.730552 -0.320652 0.373179
1.734438 -0.330211 0.372568
1.734976 -0.339177 0.374141
1.737947 -0.348630 0.374140
1.847213 -0.389200 0.307341
1.841766 -0.397491 0.312913
1.855301 -0.409895 0.306241
1.844888 -0.417072 0.314993
1.846748 -0.426964 0.315850
1.838761 -0.434558 0.323018
1.847190 -0.446026 0.319676
1.849812 -0.456163 0.320057
1.847467 -0.465096 0.323617
1.840143 -0.472725 0.330335
1.845993 -0.493243 0.330743
1.849220 -0.503653 0.330770
1.843409 -0.511603 0.336515
1.843340 -0.521102 0.338623
1.836590 -0.528726 0.344941
1.843032 -0.540118 0.342946
1.851861 -0.552295 0.339489
1.839345 -0.558121 0.349405
1.840719 -0.568099 0.350617
1.840403 -0.577585 0.352896
1.854766 -0.591758 0.346033
1.844607 -0.598140 0.354441
1.835973 -0.604952 0.361894
1.841261 -0.616325 0.360692
1.848174 -0.628299 0.358505
1.836981 -0.634165 0.367523
1.832330 -0.642193 0.372485
1.839085 -0.654235 0.370422
1.837668 -0.663404 0.373390
1.841877 -0.674649 0.372912
1.841151 -0.684132 0.375478
1.847755 -0.696362 0.373550
1.843703 -0.704625 0.378149
1.831528 -0.709716 0.387673
1.839606 -0.722634 0.384894
1.841187 -0.733062 0.386058
1.965037 -0.813925 0.317909
1.970302 -0.826711 0.317040
1.965883 -0.835449 0.321992
1.970297 -0.847960 0.321648
1.975409 -0.860865 0.320912
1.972452 -0.870291 0.324996
1.971901 -0.880761 0.327648
1.971349 -0.891232 0.330301
1.969859 -0.901336 0.333525
1.973964 -0.914024 0.333438
1.974799 -0.925263 0.335289
1.979608 -0.938394 0.334820
1.967604 -0.943567 0.344240
1.970775 -0.955959 0.344735
1.976977 -0.969948 0.343474
1.972904 -0.978887 0.348226
1.972724 -0.989778 0.350716
1.975574 -1.002287 0.351450
1.969775 -1.010317 0.357213
1.973411 -1.023290 0.357508
1.973068 -1.034240 0.360113
1.966317 -1.041754 0.366429
1.965104 -1.052299 0.369532
1.969282 -1.065674 0.369558
1.975028 -1.080058 0.368698
1.965841 -1.086259 0.376399
1.960471 -1.094580 0.381907
1.968408 -1.110275 0.379833
1.970003 -1.122535 0.381387
1.974135 -1.182410 0.391500
1.975497 -1.194868 0.393247
1.979055 -1.208636 0.393788
1.983319 -1.223008 0.393949
1.985228 -1.235968 0.395437
2.013073 -1.265361 0.382559
2.017116 -1.280030 0.382931
2.016518 -1.291775 0.385880
2.008212 -1.298580 0.393104
2.729927 -1.832993 0.009707
2.739673 -1.856370 0.008043
2.737281 -1.871685 0.013006
2.746800 -1.895259 0.011543
2.779032 -1.952269 0.001603
2.785963 -1.974627 0.001658
2.792823 -1.997185 0.001791
2.807665 -2.025680 -0.002296
2.804653 -2.041288 0.003180
2.804480 -2.059110 0.007159
2.793158 -2.068779 0.017084
2.782617 -2.078852 0.026560
2.723174 -2.069721 0.065691
2.705225 -2.073761 0.078985
2.679256 -2.071366 0.096439
2.655486 -2.070482 0.112693
2.637651 -2.074025 0.125796
2.616148 -2.074453 0.140769
2.590263 -2.071261 0.157986
2.571027 -2.073102 0.171683
2.547410 -2.071223 0.187620
2.525285 -2.070351 0.202737
2.502507 -2.068678 0.218132
2.483292 -2.069821 0.231674
2.459130 -2.066643 0.247689
2.436460 -2.064374 0.262883
2.412419 -2.060699 0.278716
2.395446 -2.062955 0.290942
2.369304 -2.057073 0.307758
2.355252 -2.061543 0.318430
2.339759 -2.064507 0.329813
2.324248 -2.067472 0.341171
2.300431 -2.062704 0.356613
2.279394 -2.060248 0.370650
2.270145 -2.068439 0.378811
2.245090 -2.061969 0.394732
2.231751 -2.066046 0.404847
2.203941 -2.056566 0.422027
2.189943 -2.059742 0.432409
2.176655 -2.063520 0.442420
2.153830 -2.057964 0.457004
2.137159 -2.058230 0.468590
2.122552 -2.060306 0.479137
2.110021 -2.064190 0.488660
2.088664 -2.059342 0.502384
2.070742 -2.057707 0.514428
2.062905 -2.066009 0.521643
2.045676 -2.064778 0.533288
2.017207 -2.051808 0.550180
2.006055 -2.056400 0.558893
1.990237 -2.056176 0.569774
1.968626 -2.049534 0.583288
1.964671 -2.061351 0.588593
1.944400 -2.055815 0.601419
1.928697 -2.055094 0.612110
1.911698 -2.052769 0.623371
1.905789 -2.062281 0.629517
1.883054 -2.053339 0.643317
1.866824 -2.051420 0.654113
1.852512 -2.051407 0.664010
1.837634 -2.050592 0.674135
1.829109 -2.056798 0.681387
1.811063 -2.052274 0.692870
1.799375 -2.054672 0.701487
1.783971 -2.052758 0.711719
1.764197 -2.045532 0.723839
1.749416 -2.044022 0.733745
1.745287 -2.054942 0.738965
1.737355 -2.061451 0.745847
1.713413 -2.048517 0.759618
1.695685 -2.042901 0.770670
1.696385 -2.059535 0.773789
1.678715 -2.053720 0.784747
1.658687 -2.044800 0.796659
1.645933 -2.044699 0.805467
1.643458 -2.057425 0.809933
1.624129 -2.048809 0.821451
1.620995 -2.060733 0.826186
1.594670 -2.042702 0.840502
1.583817 -2.044509 0.848386
1.575880 -2.050022 0.855076
1.559741 -2.044717 0.865088
1.547165 -2.043921 0.873619
1.535797 -2.044528 0.881625
1.524418 -2.045136 0.889615
1.513609 -2.046444 0.897383
1.493675 -2.035036 0.908702
1.494972 -2.052670 0.911639
1.479577 -2.047470 0.921147
1.461486 -2.038068 0.931635
1.458698 -2.050094 0.936167
1.445724 -2.047801 0.944634
1.436651 -2.050916 0.951591
1.424312 -2.049226 0.959752
1.414738 -2.051440 0.966852
1.402387 -2.049551 0.974993
1.387327 -2.043457 0.984097
1.372910 -2.038166 0.992908
1.365598 -2.043286 0.999090
1.360900 -2.052509 1.004347
1.348669 -2.050222 1.012308
1.339134 -2.052039 1.019285
1.326968 -2.049553 1.027160
1.315373 -2.047869 1.034814
1.304833 -2.047686 1.042076
1.291662 -2.043301 1.050236
1.277499 -2.037215 1.058703
1.262425 -2.029230 1.067415
1.259160 -2.040555 1.072129
1.252772 -2.046777 1.077902
1.241864 -2.045397 1.085146
1.229386 -2.041416 1.092906
1.219451 -2.041536 1.099815
1.206547 -2.036556 1.107652
1.197662 -2.038278 1.114162
1.188858 -2.039901 1.120612
1.180462 -2.042324 1.126957
1.175024 -2.049949 1.132360
1.159283 -2.039369 1.140959
1.149055 -2.038193 1.147783
1.145419 -2.049118 1.152659
1.127087 -2.033042 1.161852
1.125836 -2.048167 1.166001
1.111786 -2.039792 1.173904
1.105746 -2.046216 1.179477
1.093247 -2.040243 1.186835
1.083968 -2.040369 1.193286
1.072864 -2.036995 1.200226
1.060919 -2.031724 1.207337
1.049900 -2.028152 1.214188
1.043855 -2.034178 1.219681
1.037340 -2.039404 1.225310
1.033016 -2.048929 1.230374
1.011910 -2.024666 1.239707
1.005845 -2.030493 1.245185
1.001046 -2.039118 1.250362
0.993176 -2.041346 1.256287
0.981891 -2.036378 1.263019
0.968095 -2.025914 1.270301
0.962387 -2.032540 1.275671
0.958313 -2.042664 1.280698
0.948781 -2.041095 1.286941
0.935571 -2.031233 1.293952
0.930197 -2.038559 1.299266
0.923156 -2.042288 1.304931
0.912886 -2.038622 1.311245
0.906229 -2.043150 1.316821
0.897588 -2.043082 1.322786
0.884219 -2.031924 1.329606
0.874846 -2.029859 1.335652
0.869746 -2.037784 1.340912
0.863062 -2.042112 1.346465
0.849130 -2.028859 1.353222
0.839443 -2.025597 1.359224
0.837272 -2.040813 1.364031
0.828324 -2.039449 1.369908
0.813885 -2.024001 1.376560
0.804281 -2.020540 1.382451
0.803741 -2.040350 1.387114
0.793057 -2.034093 1.393138
0.786319 -2.037923 1.398643
0.778502 -2.038956 1.404281
0.775215 -2.052173 1.409423
0.760808 -2.035332 1.415737
0.754374 -2.040061 1.421199
0.745217 -2.037200 1.426916
0.739090 -2.042728 1.432355
0.728295 -2.034976 1.438150
0.719193 -2.031917 1.443786
0.711422 -2.032652 1.449311
0.705258 -2.038080 1.454749
0.700012 -2.046204 1.460153
0.688739 -2.036357 1.465813
0.682516 -2.041585 1.471251
0.673182 -2.037329 1.476786
0.661138 -2.024490 1.482322
0.658233 -2.040099 1.487724
0.657399 -2.088484 1.498799
0.652652 -2.099400 1.504426
0.625600 -2.062544 1.515157
0.617467 -2.061684 1.520601
0.604915 -2.045454 1.525770
0.594112 -2.034914 1.530963
0.577169 -2.002220 1.535591
0.568744 -1.999266 1.540782
0.562185 -2.002998 1.546123
0.551446 -1.991264 1.551009
0.536670 -1.964064 1.555327
0.530971 -1.970491 1.560674
0.508589 -1.940842 1.569723
0.499258 -1.932703 1.574413
0.490706 -1.927358 1.579168
0.482673 -1.924009 1.583991
0.472563 -1.911782 1.588340
0.462315 -1.898558 1.592564
0.454424 -1.895010 1.597258
0.446561 -1.891463 1.601920
0.433021 -1.862481 1.605002
0.425729 -1.860731 1.609665
0.419088 -1.861873 1.614509
0.399628 -1.834736 1.622096
0.393676 -1.838672 1.627068
0.370977 -1.792690 1.632798
0.364558 -1.793635 1.637434
0.360199 -1.805251 1.642978
0.348391 -1.777676 1.645168
0.341472 -1.775530 1.649488
0.333863 -1.769397 1.653419
0.325603 -1.759275 1.656946
0.317929 -1.752145 1.660702
0.311625 -1.752792 1.665201
0.303868 -1.744566 1.668791
0.299176 -1.754984 1.674281
0.287882 -1.724028 1.675404
0.281217 -1.721586 1.679479
0.274715 -1.720141 1.683648
0.265904 -1.702845 1.685998
0.259056 -1.698310 1.689756
0.252929 -1.698660 1.694075
0.245588 -1.690139 1.697307
0.237781 -1.677631 1.699993
0.231084 -1.672998 1.703619
0.222563 -1.653514 1.705296
0.216223 -1.650776 1.709087
0.210130 -1.649931 1.713120
0.204381 -1.652077 1.717551
0.197628 -1.645252 1.720745
0.189976 -1.629559 1.722645
0.184067 -1.629612 1.726743
0.178445 -1.632555 1.731264
0.170337 -1.609889 1.731962
0.163939 -1.603964 1.735091
0.156971 -1.591064 1.737121
0.150852 -1.586933 1.740478
0.144511 -1.579913 1.743331
0.138610 -1.577775 1.746954
0.108273 -1.549955 1.761903
0.102722 -1.551504 1.766083
0.078780 -1.519453 1.775682
0.073437 -1.524788 1.780546
0.067891 -1.525242 1.784487
0.062034 -1.515936 1.786505
0.056370 -1.511410 1.789450
0.050765 -1.507881 1.792561
0.045153 -1.503356 1.795458
0.039262 -1.479113 1.794300
0.033911 -1.485345 1.799339
0.028510 -1.491475 1.804409
0.001595 -1.436798 1.811162
-0.003823 -1.445716 1.816853
-0.008909 -1.430243 1.817004
-0.014182 -1.429305 1.820463
-0.019529 -1.431254 1.824584
-0.024480 -1.418669 1.825276
-0.029466 -1.409967 1.826837
-0.034795 -1.411817 1.830930
-0.039666 -1.402120 1.832190
-0.044937 -1.402975 1.836022
-0.049947 -1.398057 1.838415
-0.059136 -1.374585 1.839688
-0.064459 -1.377231 1.843956
-0.070174 -1.385749 1.849758
-0.073786 -1.361426 1.846972
-0.078771 -1.359295 1.849956
-0.083755 -1.357065 1.852924
-0.089098 -1.359712 1.857182
-0.093369 -1.348825 1.857785
-0.098141 -1.344605 1.860176
-0.101862 -1.328843 1.859344
-0.107170 -1.331390 1.863563
-0.111761 -1.326176 1.865608
-0.116609 -1.323848 1.868454
-0.120556 -1.312864 1.868804
-0.125660 -1.313421 1.872452
-0.128318 -1.291893 1.869634
-0.133477 -1.293346 1.873513
-0.138994 -1.297584 1.878238
-0.144087 -1.297942 1.881848
-0.148824 -1.295515 1.884590
-0.153423 -1.292094 1.887028
-0.157104 -1.281908 1.887384
-0.160589 -1.270928 1.887400
-0.166441 -1.276856 1.892731
-0.170820 -1.272341 1.894791
-0.174455 -1.263151 1.895311
-0.183635 -1.257901 1.900531
-0.187137 -1.248713 1.900946
-0.190738 -1.240420 1.901648
-0.195729 -1.240580 1.905122
-0.199417 -1.233183 1.906078
-0.203561 -1.228570 1.907948
-0.208366 -1.227736 1.911083
-0.213519 -1.228691 1.914860
-0.219403 -1.233324 1.919937
-0.224787 -1.235173 1.924057
-0.229824 -1.235034 1.927530
-0.232793 -1.224855 1.927352
-0.238772 -1.229288 1.932466
-0.246952 -1.243960 1.941290
-0.252460 -1.245610 1.945455
-0.260625 -1.259087 1.954044
-0.266640 -1.262524 1.958937
-0.272477 -1.264868 1.963495
-0.287274 -1.282375 1.977532
-0.291494 -1.277363 1.979360
-0.309383 -1.305501 1.997826
-0.316432 -1.311221 2.003937
-0.322837 -1.314157 2.009017
-0.329272 -1.317193 2.014108
-0.345426 -1.334590 2.029064
-0.351269 -1.334644 2.033116
-0.380495 -1.374839 2.062055
-0.384455 -1.367539 2.063215
-0.398449 -1.394014 2.078629
-0.403528 -1.390291 2.081320
-0.411584 -1.396201 2.088176
-0.422179 -1.409958 2.098491
-0.429265 -1.412192 2.103881
-0.439486 -1.424061 2.113522
-0.442681 -1.413879 2.113526
-0.470522 -1.458168 2.142383
-0.478506 -1.461789 2.148703
-0.510074 -1.493104 2.177328
-0.518624 -1.497318 2.184155
-0.532235 -1.515234 2.197449
-0.540942 -1.519247 2.204345
-0.550651 -1.525842 2.212493
-0.560759 -1.533131 2.221071
-0.587122 -1.562794 2.245743
-0.597514 -1.569881 2.254454
-0.643532 -1.625677 2.298393
-0.652595 -1.628095 2.305179
-0.663150 -1.633787 2.313711
-0.601984 1.055569 1.708336
-0.596403 1.054828 1.704617
-0.588379 1.049784 1.700062
-0.574076 1.033634 1.693381
-0.567145 1.030193 1.689269
-0.562164 1.030054 1.685836
-0.564833 1.043821 1.684962
-0.560767 1.045483 1.681822
-0.515080 1.005178 1.658202
-0.513889 1.011843 1.656057
-0.501472 1.005868 1.648669
-0.500227 1.012433 1.646498
-0.497614 1.016397 1.643905
-0.496295 1.023060 1.641682
-0.491871 1.023424 1.638546
-0.493108 1.035387 1.637035
-0.486921 1.032150 1.633392
-0.478619 1.024415 1.629181
-0.476331 1.029178 1.626655
-0.473486 1.052465 1.620081
-0.471473 1.058127 1.617570
-0.468193 1.061089 1.614721
-0.467748 1.070349 1.612579
-0.464016 1.072312 1.609603
0.067504 3.460372 0.769466
0.079964 3.440750 0.764727
0.092245 3.419137 0.760507
0.105864 3.454192 0.744159
0.117976 3.429593 0.740657
0.130314 3.416646 0.734688
0.143510 3.428993 0.723118
0.155147 3.400313 0.720747
0.168279 3.409573 0.709839
0.181634 3.421620 0.698203
0.194531 3.423013 0.689025
0.207081 3.417435 0.681438
0.220880 3.433164 0.668789
0.247951 3.450881 0.646563
0.259416 3.428578 0.643052
0.272391 3.428475 0.634089
0.286382 3.440916 0.621963
0.298720 3.431953 0.615196
0.311509 3.428764 0.606979
0.323784 3.419803 0.600280
0.336807 3.419401 0.591354
0.349387 3.414022 0.583704
0.361459 3.403867 0.577373
0.375991 3.417698 0.564590
0.390651 3.431328 0.551748
0.401759 3.412415 0.547825
0.414743 3.410619 0.539192
0.426248 3.396284 0.534071
0.438734 3.390507 0.526570
0.452171 3.392394 0.516918
0.466401 3.399852 0.505594
0.477083 3.380543 0.502027
0.489638 3.375563 0.494336
0.505869 3.396055 0.479052
0.516383 3.376647 0.475629
0.529366 3.374254 0.467122
0.541021 3.363305 0.461236
0.556696 3.377724 0.447532
0.570951 3.382692 0.436693
0.585087 3.386565 0.426149
0.599476 3.391332 0.415258
0.639218 3.460547 0.374072
0.651088 3.448998 0.368149
0.652997 3.385034 0.379490
0.664945 3.375377 0.373135
0.678638 3.374970 0.363753
0.690022 3.363325 0.358183
0.705210 3.370178 0.346317
0.722475 3.386279 0.331204
0.729166 3.352159 0.333324
0.739247 3.334748 0.329799
0.747262 3.308089 0.329536
0.761406 3.309969 0.319378
0.769181 3.283212 0.319298
0.782671 3.282309 0.310156
0.797997 3.288563 0.298318
0.811168 3.285571 0.289793
0.826175 3.289835 0.278570
0.832721 3.260299 0.279906
0.851893 3.280767 0.262582
0.863680 3.272008 0.256158
0.871568 3.248737 0.255325
0.881032 3.231728 0.252134
0.900239 3.251001 0.235049
0.914964 3.252877 0.224498
0.927112 3.245610 0.217527
0.935180 3.223930 0.216235
0.950838 3.229186 0.204361
0.962421 3.220030 0.198175
0.975591 3.216141 0.189832
0.992193 3.223780 0.176837
1.000447 3.203793 0.175091
1.023250 3.230807 0.153983
1.035949 3.224830 0.146387
1.049404 3.221336 0.137750
1.062952 3.217943 0.129070
1.076172 3.213456 0.120805
1.087641 3.203703 0.114811
1.105317 3.212230 0.100898
1.117381 3.204067 0.094167
1.137667 3.219446 0.077100
1.153440 3.221513 0.065777
1.164609 3.210568 0.060242
1.187613 3.232400 0.040004
1.199213 3.222049 0.034031
1.215776 3.225504 0.021902
1.223689 3.205520 0.020369
1.249509 3.232809 -0.002887
1.255755 3.208454 -0.002390
1.265538 3.193535 -0.006198
1.272881 3.172659 -0.007140
1.278034 3.146719 -0.005570
1.287824 3.132597 -0.009550
1.296525 3.115894 -0.012265
1.297734 3.081518 -0.006290
1.300534 3.051414 -0.002278
1.305277 3.026474 -0.000607
1.313816 3.010668 -0.003391
1.321936 2.994069 -0.005715
1.325164 2.966551 -0.002519
1.336754 2.958292 -0.008880
1.338209 2.927600 -0.003817
1.343641 2.905941 -0.003296
1.351941 2.891034 -0.006082
1.361349 2.878509 -0.010104
1.361033 2.845540 -0.003358
1.362492 2.816641 0.001339
1.377408 2.816324 -0.008911
1.372265 2.774628 0.002902
1.387954 2.775800 -0.008181
1.390009 2.749586 -0.004408
1.400369 2.740240 -0.009724
1.404210 2.717997 -0.007981
1.407115 2.694267 -0.005290
1.418931 2.687998 -0.012225
1.416242 2.653952 -0.003625
1.419914 2.632706 -0.001960
1.429446 2.622471 -0.006530
1.433466 2.601919 -0.005248
1.438165 2.583055 -0.004762
1.445331 2.568855 -0.006910
1.445443 2.542258 -0.001722
1.448953 2.521909 -0.000126
1.457150 2.510091 -0.003444
1.456410 2.482803 0.002453
1.466310 2.474059 -0.002656
1.470258 2.455301 -0.001673
1.475908 2.439618 -0.002481
1.476453 2.415607 0.001899
1.482363 2.400719 0.000755
1.473870 2.362535 0.014192
1.493083 2.369456 -0.000471
1.499258 2.355362 -0.001943
1.496390 2.327096 0.005634
1.506665 2.319643 -0.000000
1.512589 2.305552 -0.001308
1.516046 2.287694 -0.000166
1.518903 2.269244 0.001521
1.523126 2.252874 0.001823
1.532649 2.244631 -0.003133
1.530296 2.218950 0.003579
1.532819 2.200502 0.005487
1.540642 2.190081 0.002138
1.545991 2.175994 0.001231
1.552713 2.164087 -0.001056
1.548731 2.137224 0.007006
1.562996 2.135916 -0.002593
1.568530 2.122524 -0.003769
1.564208 2.095863 0.004501
1.576342 2.091584 -0.003049
1.579051 2.074728 -0.001593
1.582790 2.059259 -0.001122
1.584816 2.041811 0.000935
1.591995 2.031196 -0.001935
1.600292 2.021966 -0.005840
1.590297 1.989572 0.007473
1.591982 1.972326 0.009739
1.193896 1.415851 0.395142
1.195288 1.403687 0.396579
1.212696 1.410623 0.383174
1.223486 1.409542 0.375932
1.228164 1.401237 0.374345
1.242929 1.404508 0.363487
1.259944 1.410251 0.350581
1.271448 1.409363 0.342787
1.225569 1.318182 0.392560
1.227580 1.307508 0.393295
1.224241 1.291098 0.398837
1.240680 1.295950 0.386514
1.251343 1.294471 0.379444
1.258468 1.289135 0.375562
1.272689 1.291115 0.365336
1.289942 1.296059 0.352432
1.301242 1.294775 0.344875
1.310894 1.291611 0.338821
1.319869 1.287755 0.333379
1.340280 1.295065 0.317809
1.348750 1.290416 0.312874
1.364503 1.292782 0.301520
1.376017 1.290899 0.293927
1.392478 1.293558 0.282012
1.397333 1.285152 0.280328
1.403319 1.277833 0.277633
1.439078 1.297773 0.248960
1.451413 1.295882 0.240795
1.460026 1.290535 0.235900
1.468038 1.284595 0.231549
1.489785 1.290699 0.215285
1.505983 1.291767 0.203886
1.519757 1.290363 0.194631
1.534755 1.290046 0.184324
1.556291 1.294956 0.168470
1.569483 1.292661 0.159791
1.586603 1.293422 0.147793
1.588847 1.281949 0.148521
1.602151 1.279354 0.139832
1.590326 1.230340 0.157707
1.584544 1.212854 0.165175
1.581820 1.197934 0.170008
1.581096 1.184591 0.173145
1.579589 1.170857 0.176912
1.580620 1.159095 0.178525
1.576317 1.143390 0.184600
1.571309 1.127393 0.191240
1.574175 1.117210 0.191270
1.580365 1.109491 0.188523
1.569058 1.089259 0.200339
1.571752 1.079177 0.200473
1.573131 1.068110 0.201704
1.564880 1.050643 0.210878
1.561970 1.036920 0.215604
1.565191 1.027332 0.215263
1.573150 1.020994 0.211016
1.554196 0.997037 0.228868
1.556544 0.987158 0.229201
1.563017 0.979914 0.226155
1.555542 0.963866 0.234502
1.550782 0.949670 0.240602
1.563412 0.946333 0.232529
1.561376 0.933907 0.236395
1.559955 0.921965 0.239740
1.502359 0.845281 0.294747
1.503384 0.835461 0.295980
1.510049 0.828854 0.292678
1.508794 0.817847 0.295725
1.518288 0.812752 0.290167
1.506190 0.795943 0.301859
1.515605 0.790819 0.296363
1.501204 0.773072 0.309834
1.504799 0.764906 0.308964
1.509728 0.757476 0.307027
1.514034 0.749642 0.305599
1.511638 0.738505 0.309459
1.506320 0.725986 0.315614
1.520006 0.722810 0.306780
1.512390 0.709283 0.314722
1.511317 0.699012 0.317497
1.507237 0.687389 0.322619
1.514218 0.680939 0.319068
1.507041 0.668047 0.326582
1.502070 0.656252 0.332353
1.515622 0.652738 0.323679
1.511276 0.641317 0.328943
1.506130 0.629654 0.334810
1.505500 0.619957 0.337165
1.508514 0.611845 0.336686
1.509225 0.602794 0.337984
1.507629 0.592856 0.341055
1.510561 0.584754 0.340632
1.512696 0.576340 0.340820
1.514036 0.567624 0.341617
1.504705 0.554907 0.350587
1.511293 0.548251 0.347348
1.508720 0.538191 0.351118
1.504546 0.527635 0.356093
1.502599 0.517958 0.359356
1.509827 0.511506 0.355634
1.505560 0.501071 0.360650
1.466798 0.461911 0.395204
1.461531 0.451623 0.400882
1.463860 0.443825 0.400814
1.470917 0.437444 0.397197
1.473969 0.429839 0.396592
1.470850 0.420391 0.400619
1.479357 0.414357 0.395930
1.492526 0.409572 0.387771
1.507313 0.405092 0.378432
1.508692 0.396863 0.379106
1.513060 0.380822 0.379260
1.512106 0.371994 0.381666
1.518153 0.364943 0.378880
1.520175 0.356899 0.379075
1.518331 0.347909 0.382129
1.522689 0.340413 0.380598
1.528664 0.333244 0.377885
1.536176 0.326372 0.374051
1.536507 0.317902 0.375497
1.541685 0.310440 0.373392
1.554704 0.304550 0.365555
1.558919 0.296817 0.364172
1.559984 0.288431 0.365096
1.573025 0.282272 0.357294
1.576442 0.274267 0.356517
1.568599 0.264278 0.363917
1.587169 0.258862 0.352147
1.593755 0.251289 0.349091
1.594584 0.242776 0.350203
1.586648 0.232908 0.357643
1.595511 0.225636 0.352954
1.608362 0.218851 0.345411
1.611633 0.210617 0.344777
1.616369 0.202581 0.343094
1.612240 0.193380 0.347769
1.624303 0.186192 0.340850
1.633852 0.178596 0.335749
1.636158 0.170121 0.335831
1.643191 0.162147 0.332547
1.647050 0.153779 0.331534
1.646016 0.144932 0.333999
